ply
format ascii 1.0
element vertex 1646
property float x
property float y
property float z
end_header
17.481930 17.565371 -15.451054
18.072304 18.676748 -15.888988
9.023993 14.274369 -22.376345
14.078155 12.106300 -13.403066
7.802838 10.663325 -19.448050
8.232933 11.735889 -20.421946
8.232933 11.735889 -20.421946
6.570265 6.276814 -16.855671
8.394564 12.364864 -20.716566
9.166166 14.566190 -22.407763
9.115964 14.395374 -22.215906
7.904626 10.590443 -19.606489
6.609829 3.253788 -9.179766
6.609829 3.253788 -9.179766
19.401768 20.682878 -17.091972
4.901746 0.873769 -5.726764
6.589944 5.837866 -16.617220
20.447466 31.778254 -22.915600
6.583319 5.478892 -16.631100
12.501228 12.782232 -16.377596
7.306547 8.434597 -17.796495
15.943822 33.752430 -35.952179
6.487846 5.482011 -16.105022
8.314981 10.895523 -19.887222
14.747697 17.894979 -18.383627
15.829900 33.264210 -35.296654
6.398439 5.136231 -15.801900
7.089789 7.540718 -17.120447
5.590671 1.174621 -8.679707
7.971318 10.390471 -18.835030
8.063080 10.401321 -19.055334
11.645887 10.932804 -14.583580
6.557137 5.349970 -16.040466
16.051262 33.741199 -35.301262
6.179950 4.761889 -15.139717
6.489196 5.160521 -15.808462
5.673464 1.965685 -6.404469
5.673464 1.965685 -6.404469
8.470200 -0.006467 -21.938087
6.211266 4.198596 -15.202281
14.406048 26.013639 -32.227867
14.406048 26.013639 -32.227867
6.646262 5.994671 -15.950803
19.159439 20.714287 -17.117737
6.517593 5.083573 -15.591895
14.173450 24.494751 -31.244493
6.788236 6.214211 -15.938009
14.315965 13.161825 -13.721240
8.068521 5.455831 -11.539039
14.298655 24.642138 -30.976561
6.819901 6.399020 -15.734015
7.218665 7.800511 -16.416922
7.254550 4.449332 -10.512184
7.254550 4.449332 -10.512184
13.060222 10.549447 -13.243718
5.666985 0.794533 -8.425534
9.926397 -0.819250 -24.507673
19.601812 30.036858 -22.743080
7.661217 8.512473 -16.829611
13.262986 11.064128 -13.418792
14.363177 17.456911 -18.279398
6.603837 5.487916 -14.715188
17.100357 24.367706 -20.550282
6.722547 5.036773 -15.025783
6.404431 4.013119 -14.444046
6.404431 4.013119 -14.444046
15.503556 15.319980 -14.886022
6.755978 5.495366 -14.859674
18.485046 20.305155 -16.983253
8.700160 10.946286 -18.193083
13.258971 11.550155 -13.355515
13.258971 11.550155 -13.355515
13.597775 22.114634 -27.323456
19.962132 22.692354 -18.112732
19.962132 22.692354 -18.112732
14.731904 27.083010 -28.529854
5.111670 0.985103 -6.248129
13.028609 13.939773 -17.426172
6.700127 4.910837 -14.485510
13.147805 11.674957 -13.258610
19.700788 22.481728 -18.016911
14.021355 23.546785 -27.228209
20.259861 23.727982 -18.312235
16.865278 34.166702 -30.915625
13.767392 12.361904 -13.927076
5.744298 1.520462 -9.050796
15.762776 15.855831 -15.402473
6.665087 4.403072 -14.072357
6.689921 0.747858 -14.961256
6.604316 4.444714 -13.882411
16.867956 33.771580 -29.920612
12.266404 11.561666 -15.120236
6.228441 2.911757 -13.254651
12.004966 9.346703 -12.924081
12.004966 9.346703 -12.924081
15.833613 21.094614 -19.958731
8.655342 6.794641 -12.417512
7.342929 5.438481 -15.081672
16.889641 33.709988 -29.288877
14.350340 24.653278 -25.985292
19.962299 23.598722 -18.439001
13.468184 12.205102 -13.884641
14.419530 24.469503 -25.874472
13.608261 21.491409 -24.839766
14.458274 23.579409 -26.108168
12.884709 13.986335 -17.406559
7.216147 6.132675 -14.288372
19.141573 29.742920 -22.858179
18.298378 27.389746 -22.273632
11.678699 10.737072 -14.403787
5.865969 2.135689 -7.119550
13.801525 14.732527 -16.298502
17.489851 19.802090 -16.812452
6.353334 -0.073401 -10.728902
19.609867 27.073515 -20.892160
5.217722 0.745546 -6.737196
13.183437 19.039526 -23.363649
13.381794 19.148317 -23.600485
13.381794 19.148317 -23.600485
8.437130 8.109460 -15.840002
12.514362 10.266549 -13.722312
13.483597 19.410711 -23.659872
13.483597 19.410711 -23.659872
13.603173 19.266165 -23.935209
16.040821 28.534428 -26.254356
5.165653 1.024505 -6.640416
13.871659 20.517759 -23.701172
12.921376 17.392746 -22.513840
12.586690 10.837626 -13.724522
6.036092 2.336042 -11.881326
5.706626 1.908483 -7.128472
5.953872 2.110214 -9.477860
12.394601 12.898276 -17.373318
14.041951 14.932549 -16.479841
6.046093 2.210736 -9.626515
6.046093 2.210736 -9.626515
12.587027 16.212946 -21.722103
8.817828 8.827575 -15.790724
12.644194 13.778289 -17.538040
16.188004 22.734167 -20.705818
6.158068 2.394593 -8.500535
12.466473 16.040462 -21.202347
6.188979 2.557662 -11.797404
7.665701 5.201695 -11.581156
18.272017 21.883623 -17.986528
7.146224 -0.533159 -12.487458
9.228730 6.503497 -10.749125
13.378963 15.286531 -18.551462
13.613847 13.044731 -14.760664
13.034272 17.083502 -21.117128
7.764141 4.865244 -10.089452
6.399689 3.170023 -10.081169
12.663139 13.309364 -18.059994
7.988125 6.932049 -13.691679
12.663139 13.309364 -18.059994
9.742777 -1.895758 -19.575079
6.827744 3.372561 -8.490984
9.785894 7.174410 -11.488558
14.332193 14.077647 -15.679055
5.391820 0.643833 -7.357162
14.131185 19.506546 -22.110481
6.304643 2.769335 -11.442837
15.210015 16.453165 -16.094597
13.484730 13.037133 -14.864826
5.854010 1.463162 -9.685359
5.866978 1.713995 -7.718361
5.866978 1.713995 -7.718361
7.149196 4.319962 -11.114744
15.142111 16.449446 -16.030540
7.149196 4.319962 -11.114744
6.268427 2.546359 -11.356798
7.733409 6.173531 -13.157403
12.862962 12.892018 -15.145570
13.577533 17.540373 -21.253817
6.293594 2.782378 -11.219166
5.178654 0.640207 -7.111454
14.774322 15.998296 -15.845345
6.279967 2.801055 -11.005467
6.044820 2.078377 -9.925193
13.829194 14.293827 -15.145998
5.900292 2.191382 -8.041568
6.866812 3.386261 -8.756561
6.228384 2.624927 -8.083284
12.975621 15.875900 -19.640743
12.352066 14.047142 -19.034847
16.815310 25.233379 -21.906120
6.972084 4.159886 -11.663414
8.321447 -1.289871 -15.735670
12.474696 14.690063 -18.754974
16.088402 23.921274 -21.154057
13.771251 14.461247 -15.814868
6.479360 -0.063257 -11.804778
6.069602 2.055440 -10.089303
6.056375 2.334267 -10.205492
6.056375 2.334267 -10.205492
6.058382 2.196662 -10.053084
14.172670 18.456022 -20.103504
6.205855 2.517934 -10.340108
16.471737 24.706093 -21.808952
6.027731 1.557551 -10.251039
21.414660 37.598270 -26.644941
23.587326 34.157234 -23.588140
13.156300 11.669938 -13.485840
14.335865 17.485296 -18.187220
6.695543 11.164553 -22.483309
25.081255 29.021292 -20.415560
-0.065156 0.626964 -2.827315
-0.050654 0.625286 -2.844619
7.018963 2.998490 -7.649935
0.046398 0.997021 -2.861574
0.076969 1.120342 -2.872127
0.181599 1.059342 -3.007138
0.197223 1.175536 -2.961396
0.301605 1.106534 -3.087536
0.559541 0.420360 -3.983190
0.421679 0.805234 -3.385452
0.375554 1.085206 -3.182871
9.416422 10.815321 -9.731526
9.416422 10.815321 -9.731526
9.495043 10.817443 -9.858630
9.495043 10.817443 -9.858630
8.798338 2.804796 -8.872209
0.881235 0.348419 -4.183624
9.377902 11.061126 -9.906564
0.794725 1.301223 -3.500413
8.732882 2.791315 -8.860324
8.944420 10.893514 -9.731691
1.016159 1.097287 -3.740363
8.079615 10.631910 -9.449861
1.146762 0.910007 -3.956684
1.146762 0.910007 -3.956684
7.780086 10.104227 -9.193610
1.158672 1.083873 -3.881552
1.158672 1.083873 -3.881552
2.399301 -0.676178 -7.663766
1.143396 1.228119 -3.804213
1.188998 1.072620 -3.921497
1.283387 0.991655 -4.027982
1.283387 0.991655 -4.027982
3.756814 1.292037 -5.943243
1.507929 1.291443 -4.146125
3.242917 -1.004565 -9.031451
3.326426 1.213249 -5.635461
1.673816 0.545353 -4.659016
1.560413 1.289618 -4.154355
3.256277 1.141486 -5.607326
3.270342 0.864779 -5.781346
3.739309 0.051423 -6.985262
9.017004 4.818632 -8.656426
5.895756 9.091680 -8.261074
3.015713 -0.759225 -7.916035
1.921684 0.493500 -4.946489
1.806545 1.031734 -4.511497
1.983139 0.603810 -4.932155
2.606164 -0.214714 -6.596629
2.818093 2.452708 -5.089440
3.276627 -0.736529 -7.957259
2.974418 -0.088777 -6.628812
2.157843 1.691164 -4.626855
2.157843 1.691164 -4.626855
2.945415 -0.082938 -6.582165
2.322659 1.410717 -4.810302
4.621861 -1.494131 -10.563852
2.303443 0.506391 -5.259604
3.145362 -0.351666 -7.143789
2.178359 1.383286 -4.669533
2.712641 -0.622082 -7.460513
0.274055 1.189478 -3.020718
1.425730 1.075445 -4.134066
0.721344 1.170259 -3.498557
5.188635 1.048898 -7.137790
2.640203 1.174016 -5.128571
7.418344 9.886114 -9.005543
1.220638 0.632391 -4.161090
4.327323 1.963106 -6.144012
1.784791 1.447413 -4.356596
1.784791 1.447413 -4.356596
1.329109 1.392758 -3.936057
1.329109 1.392758 -3.936057
1.184443 1.053984 -3.932810
13.727889 -1.430053 -23.264610
12.297117 -1.247266 -22.133123
2.010472 9.764535 -18.756016
2.010472 9.764535 -18.756016
9.584318 0.574279 -20.380568
16.444862 -1.225996 -22.428431
10.691050 -0.928163 -22.927189
9.591448 0.699356 -19.952919
9.567512 0.497110 -20.436161
8.603946 8.931138 -9.252928
8.613251 8.986860 -9.405536
8.589766 8.959440 -9.378914
2.587489 9.213715 -17.742254
9.208300 6.979443 -10.707455
9.208300 6.979443 -10.707455
7.600111 7.367522 -11.301468
11.188221 -0.347075 -20.354860
8.763202 7.627191 -10.020307
8.763202 7.627191 -10.020307
12.011060 2.781276 -13.911739
10.647869 -0.633595 -22.167349
12.011060 2.781276 -13.911739
11.055148 -1.201660 -23.030775
10.845498 -0.882858 -22.581156
9.374026 0.519955 -20.488768
9.374026 0.519955 -20.488768
10.115728 1.852316 -16.690977
8.257174 4.425275 -14.427395
6.388341 10.117181 -10.357435
6.863903 9.755223 -9.655250
5.366725 11.251629 -11.416377
2.878088 8.952920 -17.121029
7.171467 5.056449 -14.467795
3.030844 8.891075 -17.610397
4.686728 11.980884 -9.995192
10.628515 -0.725270 -22.036575
8.208379 2.624328 -18.098495
12.063334 2.729208 -14.082818
8.604708 3.637350 -15.264079
4.110563 6.473595 -20.126133
12.083935 2.700039 -14.128114
12.083935 2.700039 -14.128114
10.241298 -0.736529 -22.934418
8.672055 8.759056 -10.007341
11.721618 2.980133 -13.478945
9.757159 1.459492 -17.768658
8.396977 8.903661 -8.418022
10.261024 1.865069 -16.359821
10.159185 0.913995 -18.667627
10.087861 4.899651 -11.575170
10.087861 4.899651 -11.575170
11.373995 -1.920823 -25.879848
9.658771 4.859388 -12.409731
8.005510 9.184199 -9.155329
8.811177 1.136565 -20.039072
9.082314 0.614926 -20.728920
9.082314 0.614926 -20.728920
2.959577 10.812208 -15.353269
11.502520 -2.090238 -26.436548
8.660608 7.922885 -10.435066
11.818045 -1.108306 -22.137047
9.469881 2.693845 -16.186064
8.472331 7.863639 -10.316619
8.368225 9.029280 -9.987363
10.839702 -0.244133 -20.329006
7.169683 9.360630 -8.179995
7.304927 8.883110 -6.839878
9.780153 4.784379 -12.990612
10.475471 0.287529 -19.651541
12.056962 2.841398 -13.847803
12.056962 2.841398 -13.847803
10.959970 -1.680704 -26.099859
11.034753 -1.851220 -26.263651
10.043059 0.821216 -18.811602
7.074552 9.331548 -8.170673
6.951536 9.234689 -8.008420
9.028440 5.907739 -11.811965
8.258055 8.724195 -7.805165
8.258055 8.724195 -7.805165
9.731454 -0.678301 -23.495396
9.731454 -0.678301 -23.495396
9.721773 1.190088 -18.353485
8.084494 9.014650 -9.893200
10.080803 3.008964 -14.022186
10.006972 0.824394 -18.955055
12.488179 0.467897 -18.229580
10.670912 -1.613602 -26.119123
7.662018 2.613358 -18.960175
10.761961 -0.233660 -20.603146
7.368720 7.512908 -11.659519
7.977382 2.056817 -19.798695
7.926260 2.123972 -19.678345
4.791440 11.731615 -12.362131
9.555175 -0.774171 -23.781088
7.403921 8.739304 -6.891800
11.223088 -1.170402 -22.766043
9.029278 5.622719 -12.159786
9.029278 5.622719 -12.159786
8.951266 5.610228 -12.054406
8.721024 -0.275396 -27.965868
6.073180 10.461471 -10.659535
6.073180 10.461471 -10.659535
9.163715 -0.608422 -28.576742
7.193989 2.932575 -18.657389
8.908874 0.203294 -22.954552
11.886073 -1.544336 -23.223661
9.986266 3.143858 -14.230336
5.474150 6.553084 -14.832274
7.799084 1.817652 -20.649393
11.530956 1.317896 -17.101534
10.228900 -1.354665 -26.964087
9.134645 1.906940 -17.623671
3.999307 13.720604 -11.763096
10.941849 -0.648553 -21.466619
9.702298 -0.821286 -28.544853
10.199479 2.687092 -15.251456
8.418937 3.194294 -16.172598
10.199479 2.687092 -15.251456
9.774811 -0.910642 -28.518707
8.506423 3.020830 -16.359732
4.885565 6.888345 -15.258205
8.977946 -0.337794 -24.243830
7.785189 4.417829 -14.825624
8.425641 6.858445 -11.405169
8.851414 5.146513 -12.609018
10.038372 0.488354 -19.703966
7.791620 1.473756 -21.439648
7.709748 9.247540 -9.949685
11.219266 -0.868357 -22.248245
8.645928 2.551864 -17.983318
9.785460 3.149477 -14.353880
8.879754 3.289693 -15.826903
7.401803 4.966474 -14.945692
7.378232 4.942959 -15.129473
5.327519 11.276573 -10.531773
8.429996 2.696390 -17.475119
7.198406 7.736457 -11.134515
10.950940 -0.639852 -21.677876
11.657022 -1.417152 -23.290827
8.926227 2.296033 -18.275417
10.967287 -1.194135 -23.169514
4.986526 11.379836 -10.848084
4.986526 11.379836 -10.848084
4.372622 9.053988 -13.685678
4.557011 11.384498 -8.025598
12.631716 -1.685567 -22.909485
9.583806 6.804348 -10.516812
10.166475 -0.789576 -22.833002
7.145555 5.703308 -13.685382
8.803382 4.907265 -13.503052
12.964792 -1.817171 -23.180498
8.880389 -0.182931 -23.866409
7.363467 2.128550 -19.848608
3.021766 9.311916 -15.935974
4.217994 8.512019 -14.098019
6.313215 4.840993 -16.960176
2.814291 10.982845 -15.444319
2.814291 10.982845 -15.444319
6.769132 9.451682 -8.185647
7.596765 4.779135 -14.729281
8.032809 1.606077 -21.206726
10.463078 0.380716 -19.318289
5.377890 6.632139 -14.546824
7.359171 8.735917 -6.805818
7.168288 9.519231 -9.988412
5.964405 7.056789 -13.447562
9.075471 -0.403723 -27.845119
12.936255 -1.767820 -23.096737
12.936255 -1.767820 -23.096737
9.707947 6.151999 -9.521935
9.707947 6.151999 -9.521935
2.001318 10.030025 -17.956350
9.059111 0.652479 -20.733526
7.399309 8.587895 -6.645291
7.399309 8.587895 -6.645291
7.753234 2.126952 -19.948885
11.143641 3.862777 -12.762096
11.286310 -0.345662 -20.393490
10.227468 5.829412 -10.222302
14.929670 -1.778976 -24.058247
8.616862 1.456175 -19.850187
7.091557 5.364386 -14.904829
7.254483 5.080029 -14.451665
10.916107 -1.394366 -24.008959
11.365464 -1.578118 -23.802834
10.219822 -1.091464 -23.681784
8.656512 6.538544 -11.361082
7.778172 6.259613 -12.918234
7.945313 2.102803 -19.834805
4.761320 4.948597 -19.452230
9.573942 -0.667631 -23.750036
10.878591 -1.443701 -23.877979
10.067050 3.251393 -14.096527
10.067050 3.251393 -14.096527
8.504667 3.657769 -15.417274
7.299785 5.129479 -14.321888
9.199239 -0.263952 -22.659506
12.162290 -1.672351 -23.431179
12.162290 -1.672351 -23.431179
9.573371 6.319566 -9.640476
7.627608 2.621419 -18.775234
4.525522 11.049191 -7.112750
3.120080 10.200130 -14.731244
12.149072 -1.622221 -23.348051
3.850756 8.222116 -15.314060
2.286927 9.792631 -17.197138
7.369368 7.572887 -11.250650
10.566949 5.443826 -10.073239
11.273580 3.832259 -12.605677
9.775628 1.163773 -18.423893
4.437175 6.753514 -17.111404
7.935049 4.370993 -14.528766
3.514374 9.524083 -14.748881
10.440569 0.573166 -18.836040
12.339746 2.702575 -14.148205
9.400736 0.555449 -20.377121
9.950564 -0.931903 -23.538157
6.889191 9.198312 -7.868190
9.821970 -0.179431 -21.320408
7.953769 7.015360 -11.450439
12.377831 -1.556483 -22.732794
12.377831 -1.556483 -22.732794
11.321662 3.812830 -12.497206
9.041940 3.027664 -15.815602
9.041940 3.027664 -15.815602
11.623114 -2.046823 -25.600758
6.964741 -0.119739 -8.747889
6.964741 -0.119739 -8.747889
6.318459 1.025478 -7.624627
6.455608 1.352525 -7.692529
0.612784 3.271367 -9.475857
0.736283 2.961865 -9.869673
6.564028 2.018291 -7.764967
0.462177 4.518246 -9.358740
0.714785 3.395029 -9.450732
0.600159 4.398583 -9.426017
0.572292 4.412632 -9.241490
6.571187 2.078483 -7.823117
0.734282 4.157360 -9.403387
0.809424 3.642676 -9.334986
0.710189 4.365827 -9.180569
0.791423 4.431629 -8.877152
6.553019 2.465831 -7.818020
8.366128 1.775012 -8.054206
1.289007 2.550625 -9.940447
6.918759 3.450006 -7.810912
0.976692 4.083057 -9.257350
1.007417 4.031367 -9.354543
1.432012 1.942332 -10.191192
1.366140 2.298916 -10.034387
1.366140 2.298916 -10.034387
0.879184 4.518439 -8.878740
0.922395 4.191198 -8.833826
6.539168 2.333979 -7.863722
1.394117 2.341652 -9.950638
6.298171 0.959350 -7.848038
1.121658 3.847443 -9.307580
6.515375 2.400503 -7.843451
0.999308 4.199131 -8.873421
1.022214 4.128495 -8.915472
1.481746 2.326528 -9.870466
1.051448 4.323376 -8.779048
6.723794 2.816371 -7.671665
6.723794 2.816371 -7.671665
1.313629 3.525236 -9.478637
1.301552 3.394099 -9.352581
1.215500 3.959049 -9.142029
1.215500 3.959049 -9.142029
7.757350 3.333957 -7.112831
1.058638 4.516735 -8.608898
1.106750 6.361233 -9.189409
1.124069 6.046597 -9.038157
1.546852 1.433046 -9.070398
6.434759 0.035598 -8.350302
1.266880 4.345686 -8.462724
1.366497 4.138890 -8.719924
6.278644 0.726312 -8.021580
1.669033 1.348915 -8.890569
1.642615 1.470468 -8.788215
6.171383 0.957428 -7.834058
1.366963 4.706826 -8.588325
1.366963 4.706826 -8.588325
7.609706 3.364537 -7.056643
1.834332 2.568089 -9.432254
1.747053 1.443278 -8.800569
6.200694 0.956958 -7.927432
6.179508 0.797333 -7.940921
1.640028 3.628926 -8.661834
1.585429 5.327303 -8.615587
1.570163 5.571021 -8.609760
1.570163 5.571021 -8.609760
6.381894 2.039563 -8.025238
7.686684 2.290514 -7.504283
1.759024 3.619053 -8.695611
7.539446 2.531272 -7.273743
7.660940 3.576548 -7.140574
6.102608 0.873100 -7.887036
8.460502 -1.933943 -11.820849
1.956303 2.381364 -8.898158
1.919047 2.658630 -8.817133
1.715048 4.206460 -8.485067
1.930042 2.730965 -8.820774
1.930042 2.730965 -8.820774
1.911564 1.897256 -8.548603
1.833405 4.131102 -8.622339
1.958793 1.656919 -8.517637
1.734456 4.947046 -8.460873
7.672781 2.228045 -7.553296
1.708192 5.264366 -8.366999
7.634320 3.557883 -7.161622
1.848325 3.877795 -8.504375
7.766411 2.649253 -7.559407
5.794267 1.041902 -7.490730
5.969409 1.024091 -7.747318
6.245834 0.500047 -8.250542
5.926503 0.922233 -7.729476
6.378539 8.417167 -6.833523
6.140343 0.708872 -8.090934
7.613381 3.626986 -7.149189
7.648460 2.489942 -7.495847
7.751086 4.152841 -7.181362
2.302820 0.619089 -9.002442
2.826983 -0.628108 -10.376704
2.017166 5.676424 -8.995984
5.989814 1.338368 -7.780487
3.201982 -1.060153 -11.417656
2.793299 -0.444443 -10.255208
6.052608 0.711447 -8.008110
2.123642 1.767905 -8.589124
1.860309 4.889090 -8.320180
1.949539 3.933839 -8.363442
2.184778 1.565198 -8.663107
2.132846 2.762116 -8.703711
2.157130 2.452686 -8.652627
2.895612 -0.715040 -10.302509
2.399282 0.608891 -8.997760
7.628802 2.544365 -7.520496
2.201590 2.275123 -8.607140
7.682323 2.512435 -7.602587
6.152541 2.534122 -7.889744
6.003853 0.878279 -8.010448
2.446210 0.761506 -8.980798
2.204490 2.332572 -8.498700
3.703045 -1.519187 -12.304011
2.157523 3.130541 -8.389012
5.950527 8.647437 -6.413092
7.827030 4.741255 -7.230467
2.184726 3.212094 -8.432372
6.618418 -0.902131 -9.343745
2.106514 4.955284 -8.304694
2.520025 0.787192 -8.902763
2.202791 3.450775 -8.313087
5.838009 1.003592 -7.853853
2.720051 0.049914 -9.297817
2.184574 4.207747 -8.295506
2.690918 0.307378 -9.209366
2.434658 1.530071 -8.640283
7.510206 3.545676 -7.200609
5.935609 1.766323 -7.884781
2.654157 0.489733 -9.039805
2.260746 5.057760 -8.487208
2.268781 5.069449 -8.505963
5.737870 0.930864 -7.775552
5.969451 0.520932 -8.202685
6.173905 3.539893 -7.920140
2.390689 2.792634 -8.533171
7.760573 0.484249 -8.327514
7.711152 4.374131 -7.268462
6.725265 2.616206 -7.591466
6.041047 2.341902 -7.996891
2.279673 3.269899 -8.164349
2.317261 4.022270 -8.317507
3.086937 -0.396243 -9.935421
2.335457 4.166704 -8.324883
5.755481 0.950015 -7.877040
2.522527 1.546579 -8.548626
2.691315 0.571504 -8.856989
2.825584 0.049532 -9.163717
2.319165 5.826584 -8.353447
2.420092 2.901678 -8.278402
2.496360 2.587139 -8.450887
2.348305 4.652617 -8.218213
6.268517 8.212950 -7.335076
5.708899 1.081283 -7.879197
6.773410 2.788957 -7.584391
3.165504 -0.478895 -9.768633
2.421843 5.079776 -8.264270
6.265142 4.302458 -8.152720
3.372878 -0.952703 -10.223736
2.612834 2.029754 -8.458545
3.187516 -0.635857 -9.750625
2.566478 2.597905 -8.370301
2.463259 4.939966 -8.290257
2.468316 5.183267 -8.270472
5.941333 3.158399 -7.918443
6.973295 8.329739 -6.539925
2.515939 3.331247 -8.214663
2.534811 3.590051 -8.260862
7.483070 4.097052 -7.176178
2.490661 4.515562 -8.195876
2.508701 4.158849 -8.210543
5.591643 1.283387 -7.785944
5.953132 3.300214 -7.965423
2.742309 1.252292 -8.540112
6.401829 8.343111 -7.725984
6.401829 8.343111 -7.725984
2.651039 2.704485 -8.322262
7.602683 4.231662 -7.312086
2.595355 5.604071 -8.332536
5.433588 1.189896 -7.636373
2.603060 5.550547 -8.339563
3.671547 -1.350151 -10.600376
2.979262 0.468070 -8.932825
2.572824 5.445126 -8.181793
2.911957 1.336976 -8.745986
7.361289 3.695439 -7.178354
6.168772 8.464131 -7.482808
7.361289 3.695439 -7.178354
2.626153 5.057534 -8.227419
7.049760 3.593614 -7.702195
6.763417 -1.557846 -10.252516
2.658758 5.443686 -8.203839
7.645746 0.445595 -8.373781
6.714051 1.694903 -7.690497
2.692769 5.393642 -8.218961
2.849643 2.123144 -8.379912
7.504369 4.081303 -7.290864
2.919833 1.348921 -8.498333
5.452895 1.009067 -7.864096
2.836392 2.299203 -8.318107
2.772912 3.169044 -8.195520
6.338069 8.459620 -7.914671
6.338069 8.459620 -7.914671
5.450263 0.975814 -7.900006
5.515566 0.527488 -8.085868
3.046836 0.694363 -8.701188
3.447059 -0.818289 -9.592807
3.490360 -1.140301 -9.656706
3.647102 -1.280121 -10.014911
5.606835 2.678225 -7.919765
3.650140 -1.333442 -9.975612
4.438338 -2.117841 -11.898499
6.824996 2.149538 -7.702983
2.981759 1.656703 -8.435038
2.992481 2.236252 -8.469110
5.864744 4.326808 -8.063459
5.655712 2.572637 -8.066799
5.655712 2.572637 -8.066799
7.280945 2.077513 -7.576443
5.484006 1.562054 -7.974798
4.605453 -2.226907 -12.109533
3.521207 -0.868603 -9.500260
2.915309 3.021146 -8.091688
3.031904 2.314738 -8.350283
3.063874 2.642269 -8.380577
5.694174 3.219624 -8.107740
5.694174 3.219624 -8.107740
7.162025 8.363025 -6.642455
3.338249 0.338239 -8.825732
3.788570 -1.398226 -9.837578
4.254198 -1.836386 -10.910322
5.602413 -0.693929 -8.699765
3.612276 -0.759832 -9.383150
3.093750 5.734822 -8.254625
7.983716 8.435615 -6.888444
3.391293 0.415593 -8.814924
3.150385 2.232357 -8.267953
3.150385 2.232357 -8.267953
5.426610 2.026553 -8.014867
3.551376 -0.339750 -9.165999
3.220469 1.679095 -8.407153
3.105933 2.305094 -8.130253
5.663887 3.719014 -8.151424
3.152516 2.858250 -8.138204
3.699021 -0.781824 -9.374597
3.664731 -0.609822 -9.272210
3.952892 -1.451496 -9.928535
5.383483 1.809352 -8.040393
5.243837 9.129245 -6.601610
5.306904 0.810761 -8.091361
3.443547 0.528414 -8.702093
3.614888 0.033796 -9.019220
7.451106 0.546290 -8.272061
4.598092 -2.138575 -11.240809
3.255389 2.851014 -8.154102
5.288712 1.171821 -8.065304
3.297763 2.860573 -8.224431
3.288300 2.754125 -8.189593
3.108280 10.325562 -7.699550
7.228673 2.318358 -7.565829
3.355842 3.976654 -8.271737
5.175801 0.915501 -7.979222
5.219151 0.428097 -8.134167
4.440170 -1.863874 -10.721947
3.696737 0.126434 -9.020195
3.330893 3.687078 -8.147908
3.425713 1.880727 -8.378846
5.270883 0.335760 -8.280239
5.526932 5.015251 -7.975163
3.764910 -0.385834 -9.132961
3.700382 0.003650 -8.979562
5.280277 2.994612 -7.905958
5.218612 0.897455 -8.137096
3.791765 -0.487823 -9.166733
3.474997 1.539103 -8.429355
5.248950 1.991832 -8.023902
5.679314 4.336325 -8.378009
5.292077 0.491975 -8.357109
5.492588 4.953891 -7.997477
4.898144 -2.337326 -11.576436
5.443989 -0.426432 -8.785049
5.185625 0.578845 -8.214231
5.110648 1.331481 -8.010596
3.520282 3.787449 -8.225459
5.067206 1.026952 -8.036704
5.101634 0.574471 -8.161870
3.561121 1.318449 -8.329415
3.561121 1.318449 -8.329415
5.009768 0.812203 -7.997610
5.457352 4.873563 -8.158977
3.890718 -0.543219 -9.037799
3.639330 1.875871 -8.409530
5.374021 4.598561 -8.108637
3.684837 1.069434 -8.512719
3.561534 3.777517 -8.148520
5.391046 4.926664 -8.101487
5.003078 0.944090 -8.062158
6.970773 2.441082 -7.669618
3.708040 1.175101 -8.462959
3.708040 1.175101 -8.462959
3.932220 6.985393 -8.724085
4.001212 -0.231173 -9.125958
3.730139 0.907060 -8.494678
3.663961 2.209116 -8.308219
5.020335 -0.000750 -8.262995
5.071121 0.569604 -8.268215
3.721850 1.320979 -8.437375
5.286489 4.894017 -8.008301
3.364500 10.591859 -7.289396
7.131683 2.082047 -7.587539
3.846035 0.495345 -8.668669
7.132433 8.286439 -6.455665
7.174568 1.975900 -7.675725
7.174568 1.975900 -7.675725
3.672074 2.285609 -8.169686
5.155101 -2.204175 -11.500602
5.169142 -0.603306 -8.668852
7.170137 1.719293 -7.736305
5.018806 0.672746 -8.263542
5.018833 0.297951 -8.326532
7.133233 3.381696 -7.627028
4.937353 1.454604 -8.030271
4.004944 -0.348933 -8.913888
4.945132 0.855234 -8.157321
4.196326 -1.177547 -9.308365
3.870281 5.188414 -8.231621
3.814686 2.011996 -8.262831
3.720074 2.191596 -8.047381
3.838193 1.465606 -8.328516
4.204113 -0.988544 -9.196466
7.446698 0.160738 -8.493371
3.612146 10.267285 -7.298860
4.947466 0.786363 -8.278255
3.570993 9.899261 -7.188470
3.904906 1.581831 -8.361658
3.928833 5.371356 -8.162601
6.986405 1.745171 -7.793368
6.995010 2.988897 -7.499551
3.821481 2.306486 -8.063885
6.995010 2.988897 -7.499551
4.689005 -1.884964 -10.056258
7.164347 0.827168 -7.997032
5.856232 8.281753 -8.936571
5.141617 4.872237 -8.162315
3.984376 -0.891460 -8.505366
3.973431 1.942552 -8.314985
3.973431 1.942552 -8.314985
4.430418 -0.967237 -9.413001
4.763533 1.130649 -8.027241
5.078690 3.979508 -8.201532
6.991549 2.189598 -7.668844
4.250760 -0.532188 -8.941224
4.776268 2.435344 -7.912378
3.961024 2.014292 -8.188384
4.105812 0.731327 -8.562120
3.698212 9.812516 -7.073082
4.490979 -1.355139 -9.439667
4.035900 2.162911 -8.284744
3.990098 2.180771 -8.122459
4.855578 0.292485 -8.391417
4.022942 1.302305 -8.235363
7.108765 2.122764 -7.638041
7.022552 0.924701 -7.821679
7.088161 1.778573 -7.696940
4.282043 0.213983 -8.777617
4.355734 -0.788848 -8.984774
4.241567 0.494376 -8.610293
4.241567 0.494376 -8.610293
4.056390 2.240759 -8.111876
7.019783 2.757034 -7.548819
7.019783 2.757034 -7.548819
4.523492 -0.932287 -9.243126
4.914330 3.256735 -8.192936
4.730578 2.624951 -7.967744
4.133060 1.654875 -8.229534
4.097164 1.890960 -8.128657
4.900217 3.437584 -8.175048
4.377644 0.108935 -8.808722
4.882039 -1.675706 -9.921617
7.419319 4.535677 -7.463470
5.183987 8.745393 -8.031877
7.337246 0.597035 -8.327940
5.029310 -0.851984 -8.964042
4.181395 2.797811 -8.147357
4.176147 2.875991 -8.114653
4.872496 0.276311 -8.584147
7.006546 1.991964 -7.579140
4.198899 1.635164 -8.202982
4.389901 0.377203 -8.670226
5.165426 -1.371241 -9.318144
7.075838 1.026873 -7.906139
4.562744 -0.819105 -9.075903
4.360136 0.024726 -8.606652
4.230963 2.977076 -8.094122
4.585975 -0.216876 -9.036975
7.116953 0.987151 -7.971729
4.430102 -0.444261 -8.703280
4.460467 0.319014 -8.682590
4.676560 2.386400 -8.042167
5.149401 -0.821592 -9.273169
7.003716 1.030044 -7.824876
4.634408 1.828015 -8.037562
4.451332 0.442543 -8.595816
4.364011 1.202384 -8.348281
4.711255 -1.342984 -9.233945
4.299369 1.868803 -8.157218
4.904157 0.759361 -8.695576
4.277014 1.724090 -8.003101
4.584664 -0.532163 -8.793194
4.406238 3.010573 -8.105151
7.106852 1.745521 -7.807080
7.049826 0.889467 -7.944760
4.719560 0.509157 -8.450668
4.596790 1.005675 -8.179994
4.377673 1.731802 -8.101892
7.128065 0.821984 -8.106002
7.128065 0.821984 -8.106002
4.735914 3.494486 -8.149641
4.446286 1.628065 -8.217916
7.020202 1.948849 -7.696207
4.724975 -0.230338 -8.571537
4.648756 0.717461 -8.344975
4.830863 -1.297712 -9.160416
4.454892 1.727386 -8.077359
4.740272 -0.541283 -8.815948
4.545071 0.754878 -8.295552
4.467019 2.485846 -7.952902
4.524693 1.552965 -8.159004
4.534410 1.771723 -8.091730
4.533988 1.720897 -8.100554
6.369891 8.528633 -6.565491
7.667956 8.719728 -5.719274
5.180122 1.387565 -7.949419
1.480142 2.780864 -9.695858
4.140145 0.296357 -8.812817
3.193860 1.495205 -8.410910
2.994658 1.887394 -8.452842
3.025059 1.108690 -8.524226
2.745077 1.998119 -8.396708
5.718009 -2.142910 -11.535674
5.511925 2.018607 -7.741333
4.177433 2.139817 -8.121305
4.177433 2.139817 -8.121305
1.904312 3.501907 -8.581882
4.795308 2.344426 -8.060641
6.213154 -1.478861 -9.727734
6.213154 -1.478861 -9.727734
5.146807 0.425161 -8.279433
5.558668 4.799314 -8.313965
2.777255 5.354966 -8.120008
3.950758 2.658772 -8.189518
3.950758 2.658772 -8.189518
3.276269 1.353880 -8.514256
3.781094 3.556509 -7.951432
1.181751 3.081782 -9.551521
3.261499 10.210036 -19.499701
3.248909 8.400325 -18.912455
4.527650 4.496029 -21.784733
4.527650 4.496029 -21.784733
3.765968 7.933674 -19.464539
3.667791 13.527339 -20.349812
3.211718 9.404109 -17.618771
3.755238 10.081941 -19.264603
13.842048 7.360512 -12.768110
15.998693 16.353210 -12.780438
4.002667 8.369468 -19.032797
4.040291 9.643541 -19.376705
3.924209 11.951001 -19.016027
14.267697 8.775470 -13.131442
3.853791 10.596726 -18.240208
4.391699 9.035064 -19.376055
3.966804 10.301115 -18.050802
4.443379 15.145857 -20.073456
3.897068 10.904958 -17.642435
4.621368 14.836399 -20.045206
13.566951 5.772246 -12.930966
4.328953 11.072610 -18.482210
4.527404 10.120721 -18.370094
4.677662 9.843370 -18.374876
4.528344 11.302830 -17.965391
4.607182 12.224433 -18.193590
12.645891 18.674973 -8.743855
14.077804 8.582312 -13.109769
4.802141 4.496453 -17.656536
14.453538 9.172006 -13.378842
6.126158 12.765152 -21.043430
5.400779 4.938258 -18.070263
5.106192 9.209340 -17.663731
4.903253 9.046898 -16.992983
17.916891 16.342070 -15.244532
5.599685 7.430310 -18.313248
5.317307 9.960246 -17.691662
5.219261 12.393831 -17.570532
5.163820 9.187982 -16.994884
5.163820 9.187982 -16.994884
8.335766 24.593201 -25.677485
13.789307 7.270525 -13.388743
14.266027 8.875478 -13.464956
5.819159 4.953929 -18.135864
5.547443 5.249608 -17.448826
5.745779 7.423205 -17.976469
5.400702 11.143643 -17.213011
5.619858 8.135906 -17.534424
14.679698 16.358213 -11.898675
5.574166 5.841153 -17.242191
5.574166 5.841153 -17.242191
11.307305 19.457132 -7.380036
14.033906 9.785854 -13.022257
12.957559 17.503531 -9.738316
6.005898 7.284232 -18.024578
6.005898 7.284232 -18.024578
12.307761 20.045435 -8.355571
5.724689 6.146842 -17.192350
5.325705 11.513401 -16.407278
5.325705 11.513401 -16.407278
5.646115 11.829079 -17.130697
6.695287 2.156620 -19.171577
6.695287 2.156620 -19.171577
5.733962 7.823666 -17.025663
14.171437 9.722919 -13.293093
13.390083 17.808445 -8.559438
5.842426 8.020837 -16.961685
15.116138 15.924823 -12.674044
6.268511 5.524075 -17.664961
11.964503 20.004944 -8.134550
6.181946 6.931740 -17.379225
14.269055 10.129025 -13.437705
6.541953 3.548337 -17.973883
14.044964 9.410100 -13.429541
6.531702 14.378572 -17.937353
6.132537 8.385918 -16.840080
6.353833 13.450338 -17.235083
6.255527 5.356145 -16.994347
7.939194 23.640614 -20.567385
12.827039 18.204044 -9.782114
6.305192 10.034209 -16.657042
6.477637 4.710075 -17.030052
6.496620 12.831090 -16.934406
6.740392 3.861668 -17.473541
6.677989 12.304000 -17.188356
6.793200 5.930760 -17.284992
14.112882 9.253926 -13.860813
6.588332 10.024429 -16.492655
6.690172 7.926250 -16.738354
6.852033 8.373594 -17.034208
13.869402 7.724698 -14.028316
6.656063 12.028828 -16.354511
6.532134 7.744218 -16.149622
13.036393 6.159438 -13.593554
6.715787 11.922073 -16.375059
15.997990 16.218445 -14.334664
6.411460 7.154021 -15.793473
6.813597 6.342677 -16.595579
6.876518 10.128864 -16.580185
8.201898 -0.594875 -19.602644
14.040226 16.094179 -12.256142
6.929002 6.196304 -16.715229
8.813969 19.167673 -19.816265
13.268218 6.806272 -13.914124
8.963326 19.447166 -20.077023
16.798502 16.160517 -15.498976
16.798502 16.160517 -15.498976
9.403124 -1.753616 -21.686047
8.814281 20.327652 -19.461506
16.912903 16.109875 -15.659783
16.034678 13.459088 -15.385390
7.093070 7.831203 -16.503853
7.305647 3.229291 -17.099337
17.031572 16.561594 -15.726771
7.024572 5.882046 -16.329668
8.903448 20.472113 -19.126797
13.369113 6.742877 -14.184319
10.019918 -2.304702 -22.412062
7.417613 6.984253 -16.727362
9.373475 20.899639 -19.694082
11.853756 18.113272 -9.484573
9.783861 18.763769 -20.430149
7.037744 6.356510 -15.817397
7.037744 6.356510 -15.817397
7.682645 4.959964 -17.048164
9.310122 19.375717 -19.194111
8.015908 1.605229 -17.859432
7.765267 6.857753 -16.861935
7.746682 3.943944 -17.025114
9.179589 19.677364 -18.541168
9.593144 19.074316 -19.366903
7.566552 4.681849 -16.540655
7.870375 3.595982 -17.093115
7.716472 4.280118 -16.720409
14.032560 9.880437 -14.295060
8.755541 19.986025 -17.324898
9.662341 19.934877 -18.922770
9.662341 19.934877 -18.922770
8.178981 0.920225 -17.661995
14.376658 10.042064 -14.738926
13.298602 16.955212 -11.729054
7.616323 6.860016 -15.917083
9.589145 18.871681 -18.552187
9.589145 18.871681 -18.552187
7.909572 5.951734 -16.487230
7.909572 5.951734 -16.487230
11.975247 18.408590 -9.916573
7.872605 4.337599 -16.317089
9.454484 20.051506 -17.777260
10.168402 19.247250 -19.137407
10.168402 19.247250 -19.137407
7.910920 7.251931 -16.088348
8.058943 4.109332 -16.616920
8.468509 13.990465 -16.364252
8.178068 1.925189 -16.961681
9.739421 20.040731 -18.101675
8.065392 5.779987 -16.383627
8.665852 -0.460818 -18.007978
14.187559 10.175760 -14.691725
9.479475 18.885172 -17.288197
8.213259 4.998799 -16.393021
10.095250 18.465504 -18.404881
9.959077 20.195185 -17.846531
8.226720 5.251643 -16.254936
8.282203 4.373486 -16.442797
8.282203 4.373486 -16.442797
8.664847 2.301507 -17.150085
9.036478 -0.695897 -18.118099
14.557636 10.332671 -15.340942
8.495982 3.444792 -16.670042
14.482988 10.618232 -15.188359
10.341455 18.980675 -18.177876
12.774581 17.144266 -11.540159
10.537103 19.046858 -18.446531
10.537103 19.046858 -18.446531
9.016070 21.625826 -15.445209
8.739797 11.314169 -16.099777
10.009617 -1.626295 -19.759226
8.483406 4.522097 -16.391697
8.680311 1.985598 -17.008642
8.549383 2.569010 -16.649385
8.607603 4.943792 -16.451658
13.944310 9.379172 -14.936666
9.396550 -0.898926 -18.411507
8.993232 19.167221 -15.348247
9.780581 -1.418226 -19.089495
10.423877 20.179287 -17.625538
12.054623 18.689915 -10.458740
12.054623 18.689915 -10.458740
8.450080 5.769652 -15.808215
8.450080 5.769652 -15.808215
14.062138 10.759682 -14.834571
8.962938 1.114892 -17.203794
8.756124 8.535862 -15.858905
9.484758 22.606722 -15.368941
8.687719 5.008363 -16.116415
8.656326 1.273860 -16.471571
8.750616 3.132140 -16.383440
8.476693 4.831994 -15.657436
8.889701 6.729590 -16.005217
8.487727 5.128428 -15.520899
8.487727 5.128428 -15.520899
8.976485 2.442742 -16.645515
8.722715 3.440673 -16.058283
9.018006 6.059049 -16.175076
9.433774 0.105174 -17.653099
9.229858 21.524239 -14.493052
8.856505 5.532690 -15.913990
8.944803 5.756280 -16.014587
10.022539 -1.612517 -18.787001
11.030124 17.640148 -17.903084
9.344973 10.311150 -16.029325
9.344973 10.311150 -16.029325
8.604342 4.231152 -15.599028
12.577129 -2.792395 -23.133860
9.192096 -0.445497 -17.121054
9.096796 3.556054 -16.358673
9.210074 0.359009 -16.955826
11.665875 -1.955589 -21.312994
8.408497 21.691330 -12.694212
11.055349 17.885590 -17.539057
9.365313 3.535774 -16.708332
9.491146 9.624959 -16.033869
9.777505 -0.456781 -17.856344
9.777505 -0.456781 -17.856344
11.559556 20.838961 -9.704161
9.931735 18.826000 -15.347320
11.964581 3.357357 -14.486565
9.082304 4.396648 -15.820004
9.219159 1.954005 -16.394470
9.391999 5.850246 -15.998647
9.391999 5.850246 -15.998647
14.410593 16.641020 -14.318145
13.925283 17.222084 -13.588270
9.304035 4.974217 -15.815333
14.387844 12.251122 -15.454116
14.387844 12.251122 -15.454116
9.435112 2.931917 -16.277088
9.226789 4.254916 -15.723785
12.038969 19.886879 -17.780993
11.749804 6.260251 -13.723768
9.706442 20.793125 -13.922380
9.706442 20.793125 -13.922380
9.127944 3.491770 -15.605199
10.819610 -1.619811 -19.068533
10.422577 -1.294147 -18.384951
15.704300 16.360519 -16.158777
11.850573 17.555616 -17.572876
9.628699 1.665543 -16.443151
9.789484 2.881644 -16.371672
9.672225 5.049180 -15.821105
10.010626 -0.046291 -17.155325
14.306432 12.391386 -15.531182
9.472744 0.966069 -16.089535
10.958079 19.967636 -9.593667
14.627285 16.174814 -15.048131
11.909406 18.182587 -16.933201
14.565338 16.045280 -15.034257
9.830352 6.323782 -15.569282
10.088995 1.638313 -16.719257
10.761000 -1.545571 -18.258614
11.798113 5.553894 -14.136916
11.798113 5.553894 -14.136916
9.914267 2.493438 -16.253912
11.014107 18.781424 -15.173911
11.203607 19.250334 -10.154666
10.118260 -0.600128 -16.939541
10.118260 -0.600128 -16.939541
14.397473 12.449983 -15.767797
14.397473 12.449983 -15.767797
10.503652 -0.715086 -17.512867
10.018790 1.714920 -16.337864
11.388414 17.814285 -15.460545
9.935225 5.095050 -15.411559
10.412134 0.301504 -16.945841
14.244885 17.573912 -14.465686
12.136802 17.853292 -16.303848
10.013225 2.204948 -15.879222
10.412072 3.834383 -16.156166
10.090366 4.280898 -15.583005
13.251986 17.004599 -13.438951
9.866074 21.324642 -12.180377
13.988177 12.015676 -15.547763
10.893872 9.141010 -15.840449
10.248625 2.807040 -16.008797
11.476959 11.173250 -16.198153
12.783121 17.184650 -16.996622
12.484959 16.547400 -16.656199
12.486247 16.342321 -16.668264
14.702316 17.605877 -15.206779
12.725562 7.713397 -15.051409
11.889104 17.689806 -15.357643
10.896626 9.722291 -15.283421
12.986233 17.704350 -16.811356
9.966029 1.385604 -15.421837
10.048288 20.566769 -11.915275
11.346128 17.700527 -14.236185
10.634248 19.410370 -12.865952
10.954466 9.781424 -15.115803
11.037066 19.326239 -10.338372
10.357288 4.773128 -15.138377
9.966763 20.627043 -11.521645
10.470108 2.310546 -15.694062
11.933479 17.982145 -11.809647
12.394633 18.060293 -15.331341
11.210783 10.591871 -14.964221
12.136138 5.807569 -14.943292
11.463777 3.584044 -14.618426
12.865540 17.116577 -15.878164
12.246777 18.588751 -14.593210
12.246777 18.588751 -14.593210
13.538612 16.792837 -14.263556
11.471364 18.744413 -13.335453
11.978057 10.187259 -15.652143
11.537146 8.250587 -15.388741
11.537146 8.250587 -15.388741
12.060061 3.594312 -15.486285
10.791094 6.222180 -14.762110
14.124566 16.494335 -15.177243
14.307298 13.155608 -16.186539
11.245885 4.799733 -15.588837
11.245885 4.799733 -15.588837
11.570560 18.931801 -13.114985
12.696247 9.426881 -14.995897
10.926641 19.132183 -10.545334
13.917578 -1.600485 -20.489315
14.076182 16.252537 -17.012207
12.044072 9.658482 -15.583958
10.314224 16.928741 -11.688965
13.469810 17.074371 -14.300734
10.072994 20.890907 -10.418430
13.322955 17.299248 -15.570964
13.322955 17.299248 -15.570964
11.433361 18.688240 -12.676547
11.433361 18.688240 -12.676547
12.273553 17.148001 -14.130280
10.970516 18.719715 -11.965057
12.527784 17.826616 -14.247828
10.171388 20.160042 -10.543875
10.171388 20.160042 -10.543875
10.820637 6.252856 -14.307310
11.016031 5.946330 -14.538465
11.016031 5.946330 -14.538465
13.050779 17.346560 -14.818108
13.252920 16.845816 -15.020318
12.433455 18.324928 -13.565287
11.697953 18.289251 -12.557961
11.199405 2.919130 -15.237598
13.485371 17.442467 -15.094545
13.730378 17.017555 -15.433137
14.702175 15.624491 -16.932470
14.838531 15.550045 -17.105280
17.568892 16.197243 -13.916799
17.568892 16.197243 -13.916799
12.185600 17.925379 -12.707201
11.441272 5.373945 -14.774771
11.011761 19.384102 -10.882451
12.189758 7.873655 -15.127887
13.433354 16.827803 -14.677547
13.183491 16.632193 -14.380792
13.183491 16.632193 -14.380792
11.518001 18.653011 -11.729461
15.012360 15.719053 -16.918028
9.403551 -2.168372 -22.876213
14.861242 14.683362 -16.922525
6.219967 6.348998 -17.020111
7.432510 0.540058 -18.676800
8.468632 22.118210 -17.937717
9.543382 20.082142 -19.133408
13.482650 -2.023554 -21.297020
9.226301 19.768707 -20.763720
9.274852 22.606600 -12.539617
-0.433049 1.859396 -7.074880
-0.368082 1.792730 -7.111690
-0.471112 2.682945 -6.802004
-0.098417 1.088003 -7.368171
-0.262043 2.235188 -7.013378
-0.159005 1.933992 -7.014846
-0.123568 2.773296 -6.355891
-0.011509 3.269500 -6.646329
0.029361 2.290243 -6.200564
0.118101 2.028850 -6.303905
0.182463 1.905752 -6.156658
0.205391 2.112984 -6.193511
0.279121 2.459636 -6.247212
0.294490 0.031840 -6.179175
0.580081 -0.368788 -6.432637
0.586519 -0.328659 -6.321738
0.427401 1.780606 -5.998609
1.228707 7.546835 -7.477250
0.502737 0.540932 -5.960428
0.531368 2.818885 -5.980446
1.195562 7.467124 -7.060010
1.189634 7.461549 -7.049879
0.576920 2.343422 -5.936367
0.576920 2.343422 -5.936367
0.905473 -1.252235 -6.526858
0.606632 1.838661 -5.816632
0.606632 1.838661 -5.816632
0.625362 1.451030 -5.794242
0.605989 1.291246 -5.660355
0.696293 0.740628 -5.821059
0.698898 0.897234 -5.792590
0.709965 0.814739 -5.780600
0.762850 1.451675 -5.839169
0.751723 0.123311 -5.855682
1.203332 7.109872 -6.266688
0.739387 0.845105 -5.754948
0.739387 0.845105 -5.754948
2.771950 1.949619 -9.291148
0.745735 1.559812 -5.693073
1.541132 6.241360 -6.839021
0.783415 0.674209 -5.794315
0.758424 1.512555 -5.700226
0.932889 -0.373908 -6.110382
0.823613 -0.282724 -5.881504
1.369089 6.840554 -6.376734
0.792702 1.299967 -5.632692
0.871749 0.658806 -5.768579
1.864459 5.832011 -7.031355
1.238123 6.977003 -5.839135
1.695791 6.332164 -6.604779
0.941914 1.007963 -5.696442
1.000242 0.908787 -5.745858
1.932331 5.504741 -6.736114
2.032682 5.808711 -6.868447
2.032682 5.808711 -6.868447
1.056350 0.717344 -5.675434
1.056350 0.717344 -5.675434
1.782454 5.952511 -6.345152
1.323585 -1.619813 -6.223155
1.150337 0.804643 -5.672958
1.343501 6.953839 -5.382520
1.177954 0.332741 -5.723927
1.659111 6.005461 -5.849998
1.144371 0.799263 -5.514018
1.177382 0.130669 -5.636469
1.229603 -0.059273 -5.685107
1.264791 1.041801 -5.587051
1.518433 2.852802 -5.758026
1.511073 6.256602 -5.141403
1.326344 0.359648 -5.518781
1.368307 -0.310345 -5.645001
1.364765 -0.248134 -5.594518
1.415431 0.996011 -5.498953
1.361603 0.475703 -5.453815
1.361603 0.475703 -5.453815
1.458712 0.474031 -5.569539
2.389122 5.332628 -6.293081
1.223202 -0.111910 -5.275439
1.388251 0.234037 -5.473519
1.317742 6.606960 -4.377015
2.549278 5.158746 -6.261688
2.093464 5.649549 -5.520997
1.514390 0.162051 -5.470575
1.769999 6.220004 -4.799866
1.520336 -0.174952 -5.377000
1.607631 0.329484 -5.308836
1.607631 0.329484 -5.308836
2.778509 4.962675 -6.114720
1.672233 -0.591417 -5.435905
2.569834 5.372341 -5.568055
2.715130 5.120158 -5.804776
2.750922 5.251795 -5.771670
2.115047 1.560378 -5.519930
1.889966 0.936330 -5.280468
2.137039 1.868968 -5.423009
3.049120 4.970748 -6.092350
1.863901 0.108369 -5.355727
2.301458 2.562780 -5.497553
2.386914 2.833741 -5.560266
1.568202 6.436689 -3.782100
2.257502 5.602882 -4.823709
2.733256 5.287819 -5.497761
1.947215 0.819341 -5.250787
2.545450 5.320971 -5.090425
1.767128 5.906244 -3.931445
2.039520 5.590305 -4.334382
1.857239 -0.148585 -5.121385
2.513926 2.046107 -5.511077
2.506274 5.127540 -4.844018
2.625072 5.187561 -4.871488
2.616181 2.234585 -5.408390
2.323570 5.333292 -4.370695
2.462041 5.366158 -4.531265
2.550795 5.066019 -4.621934
2.386585 5.412463 -4.316318
2.391618 1.218041 -5.180844
2.391618 1.218041 -5.180844
2.120407 -0.314534 -5.156944
2.034901 -0.814974 -5.152599
3.662506 4.367893 -5.957385
2.280253 5.406167 -4.063647
2.280253 5.406167 -4.063647
2.233093 5.425231 -3.931302
2.375893 5.298196 -4.097852
2.334486 -1.049551 -5.301816
2.629029 5.293094 -4.236802
3.167606 4.858264 -4.944047
3.273728 4.845888 -5.003058
2.526545 0.618312 -5.030282
2.218695 5.604009 -3.546356
2.251644 -0.194058 -4.879392
2.251644 -0.194058 -4.879392
2.803812 5.110484 -4.249450
3.559407 4.658768 -5.195972
2.259804 5.674509 -3.470567
2.453876 -0.530173 -5.105127
2.191780 6.377201 -3.208064
2.487267 -0.560514 -5.127055
2.431052 -0.327302 -4.943669
3.004891 5.043632 -4.297529
2.487592 -0.256815 -4.821702
3.433817 2.270760 -5.204461
3.717672 4.628542 -4.927911
3.264742 4.668008 -4.417805
3.354959 4.703872 -4.416155
2.913080 0.644098 -4.848910
3.535129 4.704195 -4.417141
3.452847 4.668269 -4.332216
3.347339 4.801146 -4.167910
3.338719 4.689666 -4.164416
3.071164 0.812395 -4.850855
2.859428 -0.364063 -4.921778
2.848509 -0.670189 -4.954033
2.870250 4.954381 -3.505727
3.035695 0.958634 -4.689619
3.406766 4.613734 -4.119704
3.021335 0.229332 -4.861805
3.045370 4.996879 -3.574378
3.418533 2.182037 -4.649483
3.431037 2.268498 -4.596531
3.481284 2.321295 -4.590407
3.481284 2.321295 -4.590407
3.467880 2.171371 -4.603094
3.467880 2.171371 -4.603094
3.497694 2.252517 -4.567030
2.950280 4.976430 -3.236014
3.238823 0.807946 -4.616131
3.528081 2.117161 -4.543169
3.558720 2.269919 -4.505054
3.330363 1.001774 -4.619881
3.370913 1.449817 -4.477929
5.853088 5.041140 -5.857555
3.287976 1.030783 -4.463566
3.869845 4.879498 -3.952567
3.669391 2.103974 -4.521260
3.730157 4.714279 -3.733697
3.606379 4.697197 -3.561451
3.531702 1.522030 -4.373371
3.531702 1.522030 -4.373371
3.535445 1.284231 -4.432525
3.354327 6.538639 -2.569441
3.355842 6.420972 -2.549557
3.573427 5.637213 -2.910029
-0.984358 1.023615 -6.456197
-1.082933 2.357616 -6.290221
-1.027493 1.012189 -6.296566
-1.002036 1.014480 -6.323140
-1.010234 1.085286 -6.287435
-0.610254 0.001844 -6.905231
-0.967343 2.390782 -6.223825
-0.793827 3.272420 -6.589663
-0.986441 2.046709 -6.086913
-0.768194 3.313018 -6.539810
-1.016769 2.125149 -5.934325
-0.959012 1.369912 -5.975785
4.222923 4.759888 -4.146218
-0.819949 0.841270 -6.208239
-0.770389 0.558029 -6.241432
-0.908831 1.945722 -6.006278
-0.937769 1.912079 -5.906618
-0.837794 1.846992 -6.100753
-0.777037 0.726220 -6.177464
-0.939911 2.338200 -5.885489
4.203474 4.943998 -4.187723
-0.693528 0.126977 -6.262209
-0.898166 1.875398 -5.912148
-0.735205 0.458321 -6.140755
-0.747073 0.612603 -6.093319
-0.691147 3.394698 -6.203633
-0.888146 1.825690 -5.786793
-0.147524 -0.479994 -2.545281
-0.212360 -0.635883 -2.550176
-0.901124 2.180237 -5.681390
4.042051 5.096845 -4.283848
-0.587461 3.419940 -6.087484
-0.867214 2.002553 -5.506878
-0.853423 1.859186 -5.530075
3.835550 5.083626 -4.220403
3.741314 4.949200 -4.208124
-0.784586 1.990170 -5.567389
-0.442363 -1.114746 -2.587224
-0.752447 1.585494 -5.616068
-0.748473 1.613053 -5.621643
-0.748473 1.613053 -5.621643
-0.626464 -0.381452 -5.838670
3.774320 5.129087 -4.242668
3.774320 5.129087 -4.242668
-0.602719 2.908612 -5.769665
-0.724387 1.658893 -5.545249
-0.778919 1.803099 -5.433183
-0.305156 -1.163418 -2.754374
3.728796 5.212889 -4.257337
-0.712295 1.536885 -5.496123
4.550546 6.464332 -4.570013
-0.504012 -0.703930 -5.847384
3.431095 4.737704 -4.222165
-0.754081 -0.178309 -5.364167
-0.754081 -0.178309 -5.364167
-0.708148 2.158304 -5.299096
3.495896 5.065141 -4.243323
-0.464375 -1.041374 -2.644828
-0.213853 -0.549149 -2.743750
-0.159710 -0.490839 -2.776680
-0.143090 -1.255562 -6.332860
-0.453504 -0.861799 -5.778274
0.668445 0.762595 -3.170779
-0.194158 -0.513710 -2.775693
-0.573512 -0.682028 -5.499004
-0.367344 -0.969389 -2.766015
-0.176597 -0.560390 -2.832808
-0.185907 -0.569024 -2.829078
-0.726684 1.420146 -5.111981
-0.740714 0.211398 -5.145427
-0.535853 -0.687562 -5.512559
-0.433393 -0.934953 -5.686534
-0.720887 1.298350 -5.106221
-0.701498 1.250838 -5.136824
-0.717082 1.208320 -5.111956
-0.704582 -0.220264 -5.185517
-0.090634 -1.489562 -6.231002
-0.653558 -0.398505 -5.268134
-0.703836 1.744718 -5.078290
-0.694809 1.638282 -5.082485
-0.557359 -0.720027 -5.419363
-0.691546 0.335912 -5.150597
-0.743691 -0.217387 -5.082030
-0.678547 0.332491 -5.164167
-0.701162 1.257950 -5.058584
-0.677869 0.442695 -5.120324
-0.688399 0.526027 -5.096980
-0.711055 1.220605 -4.993901
-0.838543 -0.054059 -4.853374
-0.624349 -0.587021 -5.227682
-0.764019 -0.124852 -4.970450
-0.603486 2.127398 -5.083638
-0.556366 2.282975 -5.117408
-0.717961 0.746796 -4.963446
-0.174815 -1.411569 -5.941414
-0.193710 -1.393147 -5.903924
-0.688944 0.417138 -5.020113
-0.681762 0.372031 -5.033208
-0.681762 0.372031 -5.033208
-0.638123 1.514334 -5.006229
-0.430524 2.580292 -5.248054
-0.667887 1.366246 -4.956635
-0.249146 -1.235756 -5.759057
-0.708260 0.747959 -4.902859
-0.764222 -0.190478 -4.862289
-0.695338 0.732498 -4.916943
-0.639771 0.468794 -5.016422
-0.664086 0.582381 -4.949540
-0.672376 0.990341 -4.901605
-0.672209 0.600047 -4.929823
-0.672209 0.600047 -4.929823
-0.703237 0.673454 -4.870911
-0.387772 -1.014602 -5.448417
-0.743424 -0.168794 -4.837149
-0.636761 -0.487998 -4.997970
-0.590776 1.395797 -4.934020
-0.701025 0.785867 -4.799929
-0.681928 0.546254 -4.847341
-0.279984 -1.367032 -5.585962
-0.630186 -0.520577 -4.973005
-0.351064 -0.910669 -2.978302
-0.244622 -1.369567 -5.612761
3.281740 5.837631 -4.474056
-0.337968 -1.045105 -3.026836
-0.357936 2.716530 -5.115164
-0.319571 -1.053351 -3.056090
