ply
format ascii 1.0
element vertex 211
property float x
property float y
property float z
end_header
-1.6924294233322144 -1.3607913255691528 4.012012004852295
-1.6923755407333374 -1.3604445457458496 4.0118937492370605
-1.6924294233322144 -1.3607913255691528 4.012012004852295
-1.6923826932907104 -1.3608171939849854 4.012077331542969
-1.692422866821289 -1.3607614040374756 4.0120038986206055
-1.6922972202301025 -1.3607300519943237 4.0121541023254395
-1.6926274299621582 -1.3604247570037842 4.011731147766113
-1.6923795938491821 -1.360508918762207 4.0119194984436035
-1.6923739910125732 -1.3604778051376343 4.0119099617004395
-1.6923625469207764 -1.3607147932052612 4.0120368003845215
-1.692327618598938 -1.36087167263031 4.012212753295898
-1.6923834085464478 -1.360816240310669 4.0120744705200195
-1.6924322843551636 -1.3608709573745728 4.012042999267578
-1.6924235820770264 -1.3608232736587524 4.012024879455566
-1.6924219131469727 -1.3608142137527466 4.012021541595459
-1.6924352645874023 -1.3608849048614502 4.012051582336426
-1.6926207542419434 -1.36040198802948 4.011735439300537
-1.6924126148223877 -1.3607650995254517 4.0120038986206055
-1.692420244216919 -1.3608133792877197 4.012022972106934
-1.6924091577529907 -1.3607498407363892 4.011998653411865
-1.6924158334732056 -1.3607925176620483 4.012014865875244
-1.6924158334732056 -1.3607925176620483 4.012014865875244
-1.6923127174377441 -1.3607805967330933 4.012166500091553
-1.6923127174377441 -1.3607805967330933 4.012166500091553
-1.6923593282699585 -1.3604354858398438 4.011890411376953
-1.6923279762268066 -1.3608561754226685 4.012199401855469
-1.6923131942749023 -1.3607803583145142 4.012165069580078
-1.6923342943191528 -1.360883116722107 4.012210845947266
-1.6923342943191528 -1.360883116722107 4.012210845947266
-1.6924289464950562 -1.360665202140808 4.01192569732666
-1.6924289464950562 -1.360665202140808 4.01192569732666
-1.6923943758010864 -1.3608677387237549 4.012094020843506
-1.6924904584884644 -1.360781192779541 4.011929035186768
-1.6924712657928467 -1.3606854677200317 4.011897563934326
-1.6924480199813843 -1.360619306564331 4.011884689331055
-1.6924480199813843 -1.360619306564331 4.011884689331055
-1.6924872398376465 -1.36073637008667 4.0119099617004395
-1.6924293041229248 -1.3608858585357666 4.012058258056641
-1.6924293041229248 -1.3608858585357666 4.012058258056641
-1.6924285888671875 -1.3606537580490112 4.01192045211792
-1.6927016973495483 -1.360349416732788 4.011683940887451
-1.6924020051956177 -1.3604334592819214 4.011862754821777
-1.6924152374267578 -1.3608155250549316 4.012030601501465
-1.6924147605895996 -1.3608150482177734 4.012029647827148
-1.6923742294311523 -1.3605815172195435 4.011939525604248
-1.6924138069152832 -1.36081063747406 4.012029647827148
-1.6924175024032593 -1.3608318567276 4.012038230895996
-1.6923948526382446 -1.3607087135314941 4.011988162994385
-1.6923948526382446 -1.3607087135314941 4.011988162994385
-1.692372441291809 -1.3607795238494873 4.012076377868652
-1.6924015283584595 -1.3608983755111694 4.0121049880981445
-1.692474126815796 -1.3607985973358154 4.0119547843933105
-1.6923824548721313 -1.3606421947479248 4.011963367462158
-1.6924203634262085 -1.360852599143982 4.01204776763916
-1.692301630973816 -1.3607734441757202 4.012181282043457
-1.692421793937683 -1.3606497049331665 4.011923789978027
-1.6924173831939697 -1.3608371019363403 4.012042045593262
-1.6924173831939697 -1.3608371019363403 4.012042045593262
-1.6924121379852295 -1.3608112335205078 4.012031555175781
-1.6924121379852295 -1.3608112335205078 4.012031555175781
-1.6923747062683105 -1.3604375123977661 4.01187801361084
-1.6924978494644165 -1.3607673645019531 4.01191520690918
-1.6924185752868652 -1.3608518838882446 4.012048721313477
-1.6924631595611572 -1.3606823682785034 4.011903762817383
-1.6924631595611572 -1.3606823682785034 4.011903762817383
-1.692418098449707 -1.3608512878417969 4.012049198150635
-1.692418098449707 -1.3608512878417969 4.012049198150635
-1.6924176216125488 -1.360850214958191 4.012049198150635
-1.6924176216125488 -1.360850214958191 4.012049198150635
-1.6923339366912842 -1.360595464706421 4.011996746063232
-1.6923799514770508 -1.360463261604309 4.0118865966796875
-1.6924110651016235 -1.3608168363571167 4.012035846710205
-1.6924110651016235 -1.3608168363571167 4.012035846710205
-1.6923848390579224 -1.3605024814605713 4.011897087097168
-1.6923803091049194 -1.3604660034179688 4.011887550354004
-1.6923803091049194 -1.3604660034179688 4.011887550354004
-1.6923813819885254 -1.3604718446731567 4.011889457702637
-1.6923813819885254 -1.3604718446731567 4.011889457702637
-1.6923810243606567 -1.3604694604873657 4.0118889808654785
-1.692368507385254 -1.360590934753418 4.01194953918457
-1.6922862529754639 -1.3605413436889648 4.012050151824951
-1.6924086809158325 -1.3608174324035645 4.012040138244629
-1.6924126148223877 -1.3608406782150269 4.012050628662109
-1.6923255920410156 -1.3607646226882935 4.01213264465332
-1.6924220323562622 -1.3608940839767456 4.012073516845703
-1.6924220323562622 -1.3608940839767456 4.012073516845703
-1.6926050186157227 -1.3604005575180054 4.0117316246032715
-1.6924097537994385 -1.360831618309021 4.01204776763916
-1.69242525100708 -1.360609531402588 4.011899471282959
-1.6923385858535767 -1.3608238697052002 4.012153625488281
-1.6924911737442017 -1.3608511686325073 4.011965274810791
-1.6923904418945312 -1.3605337142944336 4.01190710067749
-1.6923394203186035 -1.3608225584030151 4.0121541023254395
-1.6924103498458862 -1.3608391284942627 4.012052536010742
-1.6924103498458862 -1.3608391284942627 4.012052536010742
-1.6923017501831055 -1.3605785369873047 4.012066841125488
-1.6923555135726929 -1.3605395555496216 4.011932849884033
-1.6923555135726929 -1.3605395555496216 4.011932849884033
-1.6924082040786743 -1.360832691192627 4.012051105499268
-1.6924082040786743 -1.360832691192627 4.012051105499268
-1.6924049854278564 -1.360902190208435 4.01210355758667
-1.6923768520355225 -1.3604366779327393 4.011875152587891
-1.692487120628357 -1.3607347011566162 4.011909008026123
-1.692487120628357 -1.3607347011566162 4.011909008026123
-1.692474126815796 -1.3607712984085083 4.01193904876709
-1.692474126815796 -1.3607712984085083 4.01193904876709
-1.6923449039459229 -1.3607972860336304 4.012143611907959
-1.6924108266830444 -1.360856294631958 4.012063503265381
-1.6924108266830444 -1.360856294631958 4.012063503265381
-1.6923909187316895 -1.3607492446899414 4.012019157409668
-1.6924031972885132 -1.360817313194275 4.01204776763916
-1.6924031972885132 -1.360817313194275 4.01204776763916
-1.6923975944519043 -1.3608601093292236 4.012084484100342
-1.6923975944519043 -1.3608601093292236 4.012084484100342
-1.692294955253601 -1.360520601272583 4.012024879455566
-1.692294955253601 -1.360520601272583 4.012024879455566
-1.6924015283584595 -1.3604202270507812 4.011837482452393
-1.6924192905426025 -1.360653281211853 4.011929035186768
-1.6924192905426025 -1.360653281211853 4.011929035186768
-1.6924192905426025 -1.360653281211853 4.011929035186768
-1.692294716835022 -1.360508918762207 4.012020111083984
-1.692294716835022 -1.360508918762207 4.012020111083984
-1.69240140914917 -1.3606141805648804 4.011926174163818
-1.6924943923950195 -1.3604443073272705 4.011791706085205
-1.6924967765808105 -1.3604751825332642 4.011797904968262
-1.6925045251846313 -1.3607639074325562 4.011908054351807
-1.69235098361969 -1.3605427742004395 4.011939525604248
-1.69235098361969 -1.3605427742004395 4.011939525604248
-1.6923248767852783 -1.360683798789978 4.01207160949707
-1.6924020051956177 -1.3608251810073853 4.012054443359375
-1.6924020051956177 -1.3608251810073853 4.012054443359375
-1.6924973726272583 -1.3604730367660522 4.011801719665527
-1.692475438117981 -1.360802412033081 4.011955261230469
-1.6923941373825073 -1.360831379890442 4.012070655822754
-1.6923941373825073 -1.360831379890442 4.012070655822754
-1.6924947500228882 -1.3607686758041382 4.0119194984436035
-1.692488670349121 -1.3604142665863037 4.011783599853516
-1.692488670349121 -1.3604142665863037 4.011783599853516
-1.6923322677612305 -1.3604446649551392 4.011903285980225
-1.6923322677612305 -1.3604446649551392 4.011903285980225
-1.6923450231552124 -1.3606977462768555 4.012049198150635
-1.6923450231552124 -1.3606977462768555 4.012049198150635
-1.6923298835754395 -1.3606899976730347 4.012068271636963
-1.6923788785934448 -1.360709547996521 4.012009143829346
-1.6924996376037598 -1.360507607460022 4.011810302734375
-1.6924011707305908 -1.3604001998901367 4.011813163757324
-1.692356824874878 -1.3607922792434692 4.012124061584473
-1.6923304796218872 -1.360686182975769 4.012063503265381
-1.692379355430603 -1.360880732536316 4.012126922607422
-1.6923304796218872 -1.360686182975769 4.012063503265381
-1.6923283338546753 -1.360673427581787 4.012057781219482
-1.6923283338546753 -1.360673427581787 4.012057781219482
-1.6924076080322266 -1.3609000444412231 4.01209831237793
-1.6924076080322266 -1.3609000444412231 4.01209831237793
-1.6923580169677734 -1.3607913255691528 4.012124061584473
-1.6924521923065186 -1.3606318235397339 4.011887550354004
-1.692381501197815 -1.3607583045959473 4.012038707733154
-1.6923322677612305 -1.3606832027435303 4.012058734893799
-1.6923896074295044 -1.3608031272888184 4.012056350708008
-1.69232976436615 -1.3606690168380737 4.012051582336426
-1.6924362182617188 -1.3606302738189697 4.011900901794434
-1.692378044128418 -1.3608843088150024 4.012131214141846
-1.692421793937683 -1.3606579303741455 4.011929512023926
-1.6923884153366089 -1.3607772588729858 4.0120415687561035
-1.6923933029174805 -1.3608044385910034 4.012052536010742
-1.692331075668335 -1.3606382608413696 4.012029647827148
-1.6924389600753784 -1.360636591911316 4.011901378631592
-1.692331075668335 -1.3606382608413696 4.012029647827148
-1.692344069480896 -1.3605462312698364 4.011950969696045
-1.692344069480896 -1.3605462312698364 4.011950969696045
-1.6924010515213013 -1.3608580827713013 4.012077808380127
-1.692373514175415 -1.3607001304626465 4.01201057434082
-1.692461371421814 -1.360748052597046 4.0119524002075195
-1.6924327611923218 -1.360602855682373 4.011889934539795
-1.6923458576202393 -1.3605488538742065 4.0119500160217285
-1.692375898361206 -1.360716462135315 4.012017726898193
-1.6924383640289307 -1.3606377840042114 4.011902332305908
-1.6923871040344238 -1.3607769012451172 4.012042999267578
-1.6923871040344238 -1.3607769012451172 4.012042999267578
-1.6923871040344238 -1.3607769012451172 4.012042999267578
-1.692489504814148 -1.3607829809188843 4.011931896209717
-1.692489504814148 -1.3607829809188843 4.011931896209717
-1.6923980712890625 -1.3608343601226807 4.012067794799805
-1.6923748254776 -1.3607118129730225 4.012016296386719
-1.6924169063568115 -1.3608908653259277 4.012078285217285
-1.6923303604125977 -1.360640525817871 4.012031555175781
-1.6923303604125977 -1.360640525817871 4.012031555175781
-1.6923902034759521 -1.3608087301254272 4.012060642242432
-1.6923900842666626 -1.3608086109161377 4.012060165405273
-1.6923370361328125 -1.3608787059783936 4.012200355529785
-1.6923500299453735 -1.3606128692626953 4.011984825134277
-1.6923503875732422 -1.3607639074325562 4.012112617492676
-1.692418098449707 -1.36089026927948 4.012075901031494
-1.692418098449707 -1.36089026927948 4.012075901031494
-1.6923978328704834 -1.360894799232483 4.0121073722839355
-1.692387342453003 -1.3608390092849731 4.012084007263184
-1.692387342453003 -1.3608390092849731 4.012084007263184
-1.6923699378967285 -1.3609236478805542 4.012176513671875
-1.692426323890686 -1.360627293586731 4.011908531188965
-1.6924312114715576 -1.3608652353286743 4.012042045593262
-1.6923856735229492 -1.3608297109603882 4.012080192565918
-1.6923856735229492 -1.3608297109603882 4.012080192565918
-1.6923258304595947 -1.3608522415161133 4.012200832366943
-1.6924878358840942 -1.3607680797576904 4.011925220489502
-1.692421555519104 -1.3608509302139282 4.012044906616211
-1.6923736333847046 -1.360751748085022 4.012044906616211
-1.6923325061798096 -1.3608720302581787 4.012202739715576
-1.6923983097076416 -1.3608545064926147 4.012078762054443
-1.6923983097076416 -1.3608545064926147 4.012078762054443
-1.6924540996551514 -1.360622525215149 4.011881351470947
-1.6924540996551514 -1.360622525215149 4.011881351470947
